# .PCD v0.7 - Point Cloud Data file format
VERSION 0.7
FIELDS x y z intensity
SIZE 4 4 4 4
TYPE F F F F
COUNT 1 1 1 1
WIDTH 1388
HEIGHT 1
VIEWPOINT 0 0 0 1 0 0 0
POINTS 1388
DATA ascii
20.822639 3.6041803 -2.0348053 7
6.23388 -4.9924941 -0.8803212 12
8.4888964 13.355741 -0.38952339 23
20.751593 3.5135944 -2.0340054 6
8.4120293 -2.2288377 -0.95920503 24
6.0922384 -4.9158163 -0.85732663 31
8.5815039 13.403056 -0.40284881 25
20.573086 3.4021633 -2.018887 6
8.4330854 -2.2675278 -0.9579196 24
5.9930239 -4.8738728 -0.83780676 30
8.6241159 13.351282 -0.42176169 24
20.579807 3.3258297 -2.0256822 7
15.142293 -4.1339421 -1.7162684 21
5.9601903 -4.8835726 -0.83027107 28
10.79457 16.577803 -0.54566383 25
20.53322 3.2411222 -2.0162513 19
15.122826 -4.1882463 -1.7102475 25
5.9697571 -4.928092 -0.82591468 30
10.813585 16.487183 -0.56107819 18
20.422197 3.1432767 -2.0077901 8
14.905941 -4.1898708 -1.6847923 28
6.1920333 -5.1516881 -0.85371006 31
8.7898922 13.295197 -0.4674648 16
20.541849 3.0846627 -2.0184286 7
14.862928 -4.2366214 -1.670758 28
6.2385783 -5.2292247 -0.85414463 32
10.850319 16.287834 -0.59452832 26
20.479336 2.9949131 -2.0147874 19
14.679967 -4.2454824 -1.646615 27
6.0906405 -5.1433473 -0.83083916 32
10.912375 16.251579 -0.61517966 26
20.435286 2.9120107 -2.016664 19
14.569173 -4.2713671 -1.633252 25
6.0485625 -5.1477299 -0.82218462 31
10.909879 16.119883 -0.63210833 28
20.327667 2.8170807 -2.0085776 19
14.557976 -4.3288565 -1.6284853 25
5.6471348 -4.8453112 -0.76369363 34
10.99667 16.120514 -0.65416658 26
20.337507 2.7425103 -2.0121593 19
14.452109 -4.3550935 -1.6130885 26
5.7163944 -4.9412279 -0.76884133 52
11.024143 16.034231 -0.67270094 28
20.323566 2.6612151 -2.0061424 19
14.526701 -4.4384861 -1.6125796 25
5.6462269 -4.9168468 -0.75522184 16
11.082362 15.993032 -0.69647336 29
20.435446 2.5997169 -2.0307524 7
14.662326 -4.5387478 -1.6294707 24
5.6949091 -4.9978185 -0.76028723 17
11.117737 15.91913 -0.70859838 30
20.627914 2.5474086 -2.045274 6
14.346713 -4.5014877 -1.5883435 29
5.6957846 -5.0356612 -0.75482219 14
11.210084 15.926689 -0.73118234 29
20.36051 2.4350524 -2.0214326 7
14.382772 -4.5707741 -1.5888532 25
5.8042169 -5.1695514 -0.76347899 12
11.276722 15.903132 -0.75234878 26
20.458622 2.3707619 -2.0266674 6
14.387692 -4.6387796 -1.5861942 25
5.7987232 -5.2065516 -0.75863361 55
11.380947 15.926081 -0.77593267 28
20.432606 2.2882731 -2.0268283 7
14.411105 -4.699142 -1.5797865 25
5.6664686 -5.123641 -0.7382828 13
11.473794 15.93224 -0.79887003 27
20.405523 2.2095425 -2.0305593 7
14.387926 -4.7555656 -1.5739788 29
5.6720781 -5.170249 -0.73495227 12
11.590301 15.970258 -0.82360011 29
20.418451 2.1316545 -2.0346346 7
14.503826 -4.8500972 -1.5831045 25
11.736796 16.048048 -0.84720588 35
20.48518 2.0627491 -2.0441453 6
14.363986 -4.8619413 -1.5644255 26
5.9931803 -5.5439196 -0.76598871 10
12.118032 16.442505 -0.89179838 102
20.339075 1.9691789 -2.0323982 6
14.226398 -4.8818836 -1.5463481 26
5.8566594 -5.4576025 -0.74545395 28
13.25872 17.85288 -0.99425548 26
18.783533 10.614232 -1.6752622 11
20.386801 1.8912263 -2.0327835 7
14.284099 -4.9602766 -1.5492517 25
5.9849401 -5.6202326 -0.75729674 31
13.206718 17.647362 -1.0086285 21
20.357918 1.8204771 -2.0328929 7
14.265711 -5.0153556 -1.5413342 28
5.9647789 -5.6425834 -0.75013173 10
13.481051 17.889959 -1.0446333 26
19.175528 10.655435 -1.7264923 4
20.413977 1.7465061 -2.0414176 7
14.380496 -5.1093545 -1.5528672 24
5.9518332 -5.6718168 -0.74243242 23
13.286182 17.484879 -1.0471337 34
19.383656 10.678293 -1.7572422 6
20.435118 1.6728911 -2.0429049 6
14.455156 -5.1984773 -1.554947 24
5.8235993 -5.5904865 -0.72330618 28
13.379949 17.487591 -1.0692071 31
19.461222 10.628234 -1.7724148 2
20.262465 1.5804578 -2.0286057 18
14.422997 -5.2466908 -1.5427221 28
5.9278278 -5.7344427 -0.73172641 22
13.53476 17.543552 -1.0992013 28
23.741476 12.853038 -2.1768997 1
20.148693 1.4973065 -2.0202138 20
14.47702 -5.3322444 -1.545338 27
4.7569795 -4.6389012 -0.58364815 20
13.668744 17.583586 -1.1282226 32
23.899439 12.820137 -2.2011471 16
20.243273 1.4261991 -2.0327101 7
14.629438 -5.4522681 -1.5583268 25
4.4418168 -4.3634372 -0.54146326 11
13.864861 17.714327 -1.1592371 29
24.121248 12.825494 -2.2316306 16
19.8913 1.3281528 -1.9933505 26
14.681632 -5.5272374 -1.5602999 29
4.3887591 -4.3400078 -0.53023511 29
13.962948 17.705557 -1.1856813 29
24.210794 12.759503 -2.2548079 17
20.020037 1.259554 -2.0092883 65
14.631217 -5.578342 -1.5491321 31
4.3680997 -4.3543983 -0.52442497 31
14.145129 17.801989 -1.215501 31
24.066429 12.57093 -2.2513707 7
20.153646 1.1938173 -2.0222449 42
14.926892 -5.7538233 -1.5770215 28
4.3700099 -4.3883533 -0.52113867 31
14.187635 17.721737 -1.237406 28
23.900707 12.367788 -2.2503266 9
20.371521 1.124679 -2.0472343 18
14.79983 -5.7672372 -1.5574231 30
4.3611574 -4.4116855 -0.51764649 29
14.292418 17.719114 -1.2647839 32
23.736456 12.172708 -2.2447116 8
20.181202 1.0435247 -2.0312924 7
14.745674 -5.8114486 -1.5484751 29
2.0064962 -2.0453928 -0.23657338 25
14.510723 17.861809 -1.3027521 29
23.491163 11.938375 -2.2312572 7
20.294216 0.97480106 -2.042294 19
14.981133 -5.9617162 -1.5695866 26
1.9747919 -2.0278885 -0.2312233 31
14.553177 17.774176 -1.3205389 29
23.277685 11.717637 -2.2204344 8
20.278282 0.89600712 -2.0367513 7
14.898871 -5.9953499 -1.5548804 29
1.9571216 -2.0245361 -0.22705342 34
14.477691 17.556599 -1.3320309 29
23.015947 11.480345 -2.2095268 8
20.295275 0.82223833 -2.0488842 7
14.974114 -6.0894923 -1.5593563 28
1.9670796 -2.0498188 -0.2265836 32
14.550611 17.513853 -1.3567524 32
22.735296 11.236483 -2.191993 8
20.203825 0.74084061 -2.03935 7
14.929429 -6.1351843 -1.5485047 28
1.9459369 -2.0427208 -0.22253163 29
14.562684 17.398254 -1.371794 32
22.735029 11.132855 -2.2013731 7
20.271633 0.66185361 -2.0423336 7
15.032781 -6.2513866 -1.5561914 29
4.3140087 -4.5651274 -0.48881122 26
14.486862 17.173262 -1.3820454 31
22.40906 10.866758 -2.1788936 8
20.209377 0.58214921 -2.0358214 18
14.927914 -6.2720509 -1.5391499 31
4.1747513 -4.450326 -0.46952042 36
14.571542 17.145742 -1.4038308 30
21.896309 10.528569 -2.1384501 9
20.290411 0.51714826 -2.0473788 7
4.0465679 -4.3454909 -0.45168024 35
14.659285 17.121416 -1.4299257 30
21.829449 10.388739 -2.1405873 8
20.217642 0.43762019 -2.0398517 7
4.3734574 -1.8762735 -0.44817653 17
4.097795 -4.4345222 -0.45399615 36
14.685843 17.037745 -1.4467065 30
21.873571 10.316245 -2.1541324 21
20.198862 0.36315185 -2.0413706 7
4.3856282 -1.8987397 -0.4483836 18
3.9772923 -4.3358927 -0.43724009 27
14.734269 16.967773 -1.4650341 28
21.838018 10.201802 -2.1596556 23
20.14539 0.2848177 -2.035841 18
4.337472 -1.8977 -0.44170114 20
3.9012475 -4.2844095 -0.42450261 31
14.853827 16.967388 -1.4938543 30
21.488689 9.9337196 -2.1378095 10
20.240454 0.21196528 -2.0489247 7
4.34443 -1.919746 -0.43977875 22
14.954644 16.956747 -1.5175511 31
21.457735 9.8195887 -2.1434205 8
20.181425 0.13385025 -2.0428822 7
4.3102937 -1.9235752 -0.43454146 24
15.043028 16.943369 -1.5406727 30
21.198103 9.6069651 -2.1221454 8
20.17185 0.052809898 -2.0418751 19
4.3477893 -1.9621886 -0.43662769 20
5.0123444 -5.6277094 -0.5322715 11
15.183569 16.975935 -1.5766404 29
21.060102 9.4603672 -2.1254945 7
20.430231 -0.014262995 -2.0716252 6
4.327733 -1.9704373 -0.43443048 19
4.4435654 -5.0260706 -0.4679414 15
15.275939 16.965649 -1.5923924 29
20.724207 9.2226772 -2.092325 16
20.231794 -0.084747232 -2.0443866 7
4.3304992 -1.9890605 -0.43201345 18
15.400366 16.978279 -1.6270088 28
20.596739 9.0756569 -2.0958939 7
20.250473 -0.16611931 -2.0534663 7
4.3313675 -2.0114729 -0.43041584 14
4.3875766 -5.0366669 -0.4518649 35
15.498532 16.961164 -1.6509537 31
20.294291 8.8452749 -2.07318 7
20.354862 -0.24514081 -2.0569534 7
12.296151 -5.765173 -1.2168143 19
4.6662884 -5.396419 -0.47634864 21
15.694706 17.049938 -1.6855115 31
20.191837 8.716876 -2.0673375 7
20.403318 -0.31339711 -2.0655417 7
1.8489505 -2.1541622 -0.18706284 28
15.776227 17.012934 -1.7119857 28
20.062445 8.5739174 -2.0623837 7
20.281879 -0.38943195 -2.0605378 7
1.8346972 -2.1534762 -0.18344286 31
15.922544 17.044991 -1.7415395 27
20.014807 8.4669371 -2.0657635 7
20.42012 -0.47409493 -2.0675557 7
9.2720871 -4.474319 -0.90614527 175
1.8107846 -2.1412575 -0.17937808 31
15.843294 16.830141 -1.7460753 29
19.98189 8.3627033 -2.0704815 15
20.408396 -0.54510587 -2.0665488 7
9.302269 -4.5269752 -0.90691805 31
1.8030242 -2.1479988 -0.17693083 33
15.642681 16.495474 -1.7452261 30
19.629421 8.1307716 -2.0458274 8
20.315826 -0.62425375 -2.0645802 7
9.2745695 -4.5616436 -0.90243691 28
1.7824597 -2.1393745 -0.17324156 33
15.609006 16.3396 -1.7546127 31
19.682528 8.0643673 -2.0593612 7
20.368683 -0.70417148 -2.0630238 19
9.1378794 -4.5360827 -0.88357234 31
1.7866888 -2.1620395 -0.17154638 34
15.602049 16.212927 -1.7668947 33
19.415794 7.8720965 -2.0394938 7
20.370937 -0.77901179 -2.0635276 7
9.0875626 -4.5487285 -0.87479997 30
1.7637709 -2.1487784 -0.16759427 39
15.625594 16.118732 -1.7825718 30
19.263405 7.7282219 -2.0314686 7
20.273363 -0.85325027 -2.0539603 20
9.0332718 -4.5689721 -0.86606914 29
1.7678639 -2.1714816 -0.16537695 34
15.648214 16.024126 -1.8059789 29
19.267189 7.6362004 -2.0357809 15
20.184906 -0.92365175 -2.0524533 19
8.9191132 -4.552361 -0.85319704 31
1.6878099 -2.0887403 -0.15672205 22
15.73064 15.990859 -1.820537 30
19.07835 7.4882493 -2.0240285 7
20.485178 -1.0126443 -2.0761161 17
8.8690538 -4.5639467 -0.84283793 31
1.6802617 -2.0950601 -0.15344107 23
15.74197 15.885491 -1.8426033 28
19.049349 7.3964062 -2.0252652 7
20.312243 -1.0822947 -2.0589955 21
8.8987465 -4.6264734 -0.84396797 29
1.6757467 -2.1051934 -0.15184782 21
15.847477 15.869619 -1.8675129 31
18.793276 7.2140627 -2.0057251 7
20.337938 -1.1584328 -2.062017 17
8.7629852 -4.5967684 -0.82746685 31
1.677418 -2.1232173 -0.14938726 20
15.888493 15.805516 -1.8819146 29
18.711632 7.1041446 -2.0048032 6
19.459841 -1.176579 -1.973393 18
8.7172413 -4.6096992 -0.81938714 32
1.7436396 -2.2237461 -0.15353625 27
15.913235 15.714509 -1.8976667 28
18.500568 6.9428525 -1.9862859 7
18.700811 -1.199495 -1.896854 6
8.7536745 -4.6701007 -0.81569779 30
1.7539737 -2.2538898 -0.15217318 26
15.887714 15.574703 -1.9073598 27
18.459291 6.8502836 -1.9930311 19
18.303547 -1.2510202 -1.8570741 6
8.656826 -4.6612201 -0.80660731 34
3.6777389 -4.7618723 -0.31532413 19
15.730589 15.297329 -1.9081165 26
18.343201 6.7308149 -1.9881558 7
18.397747 -1.325222 -1.8703643 17
8.6209011 -4.6866136 -0.79983437 33
3.7468469 -4.891819 -0.31646031 15
15.572253 15.043202 -1.9018878 10
18.260702 6.621098 -1.9832948 6
18.308847 -1.3895041 -1.8553801 18
8.647851 -4.7424102 -0.79701108 30
3.7549565 -4.9362302 -0.31309968 15
15.408365 14.76577 -1.8933864 9
18.081884 6.4813733 -1.9782189 7
18.298023 -1.4561538 -1.8612849 19
8.5697193 -4.7405014 -0.78624511 32
3.5939543 -4.7641463 -0.2950021 14
15.32661 14.574944 -1.8950531 8
17.980049 6.3670692 -1.9643887 6
18.223541 -1.5206647 -1.8478398 17
8.5387554 -4.7662835 -0.77992463 33
3.8220787 -5.1053619 -0.30856651 14
15.232715 14.389761 -1.8922807 9
17.790409 6.2266269 -1.9577879 7
18.069487 -1.5745196 -1.829594 19
8.560792 -4.8198218 -0.77664369 30
3.6873403 -4.9631982 -0.29374722 16
14.8999 13.962605 -1.8691128 10
17.902843 6.1889191 -1.9742149 15
18.127075 -1.649693 -1.8424712 19
8.5087452 -4.8316755 -0.76836818 32
3.4559042 -4.6874747 -0.27056494 13
14.992538 13.956326 -1.8893384 8
17.717693 6.0523067 -1.9579451 6
18.131451 -1.7171195 -1.8371211 19
8.462738 -4.8427334 -0.76052308 34
3.3945999 -4.6398311 -0.26206738 12
14.861951 13.728628 -1.8840328 21
17.556068 5.9219174 -1.9473652 7
18.045506 -1.775737 -1.832257 21
8.4814548 -4.9007182 -0.76060313 33
3.4510956 -4.7535138 -0.26160827 32
14.808219 13.578745 -1.8885862 21
17.520401 5.8384519 -1.94754 7
16.187683 -1.6557034 -1.6442558 28
8.4594707 -4.929461 -0.7550897 31
3.4096227 -4.7345219 -0.25371888 14
14.653962 13.338756 -1.8836015 8
17.40815 5.7302427 -1.9456526 17
15.360581 -1.6280161 -1.5581156 22
8.4718876 -4.9783802 -0.75092101 34
3.3562555 -4.6931577 -0.24586001 27
14.557505 13.153714 -1.8822712 9
17.25915 5.6078377 -1.9329847 7
8.458209 -5.0121384 -0.74615425 32
1.6962196 -2.3921139 -0.12188143 24
14.478426 12.986187 -1.8830097 20
17.28841 5.5473733 -1.9403819 6
8.3837128 -5.0115881 -0.7344166 32
1.6645147 -2.3657308 -0.11719126 30
14.415432 12.830148 -1.8853961 22
17.142731 5.4281168 -1.931201 18
16.517323 -1.9403392 -1.6746435 49
8.3869677 -5.0553503 -0.73116368 32
1.655902 -2.3719149 -0.11416204 29
14.405433 12.726932 -1.8915234 7
17.014139 5.3188663 -1.9270951 18
15.764629 -1.9105216 -1.5962299 22
8.4796057 -5.1536541 -0.73391575 30
1.6614784 -2.3985848 -0.11260165 26
14.521562 12.735067 -1.9210544 20
16.995789 5.2415781 -1.9290042 19
15.668321 -1.9599242 -1.5872285 25
8.418252 -5.1587114 -0.72850454 35
3.2460527 -4.7230363 -0.21515293 28
14.596889 12.706783 -1.9419024 18
16.931602 5.160358 -1.9260179 7
15.656372 -2.0167379 -1.5839734 27
7.9670057 -4.9224439 -0.68443769 39
3.2485507 -4.7639832 -0.21042782 25
14.704515 12.701557 -1.9668468 20
16.855446 5.0664978 -1.9213444 7
15.698107 -2.083421 -1.5862015 23
8.0552368 -5.0178452 -0.68526727 35
3.2591898 -4.8174243 -0.20616053 26
14.839887 12.732805 -1.9930869 19
16.897083 5.0115604 -1.9302095 7
17.938183 -2.4476573 -1.8134425 19
7.776001 -4.881659 -0.65973645 38
14.926511 12.712443 -2.019197 20
16.743179 4.8960481 -1.9227924 7
17.888924 -2.5109406 -1.8126086 19
7.7625604 -4.9129782 -0.65528476 39
3.3439786 -5.0197759 -0.20219694 11
14.8751 12.570434 -2.0228753 20
16.636215 4.7986517 -1.9145936 17
17.943932 -2.5857599 -1.8159342 18
8.3358774 -5.3228197 -0.69854033 32
3.2209518 -4.8737168 -0.19073324 26
14.828004 12.437762 -2.030746 8
16.710911 4.7507696 -1.9302849 15
16.157915 -2.3888748 -1.6331843 22
8.3687229 -5.3829432 -0.69929415 34
3.2113771 -4.8981638 -0.18611154 29
14.658407 12.204257 -2.0148432 7
16.588804 4.6504083 -1.9202867 6
8.3381414 -5.4127841 -0.69165325 32
14.487056 11.971964 -2.0018306 17
16.476568 4.5507808 -1.9112989 6
15.333559 -2.3847229 -1.5488914 23
8.3729105 -5.4790783 -0.68917918 30
3.6153083 -5.6077104 -0.19685768 24
14.277568 11.706875 -1.9862142 7
16.491844 4.4900088 -1.9232318 15
17.854279 -2.8470089 -1.8077953 21
8.3864841 -5.5319681 -0.68491399 33
3.7412696 -5.8478112 -0.19755073 21
14.24219 11.590833 -1.9883384 7
16.364347 4.3878751 -1.9123738 7
17.780201 -2.902061 -1.798184 21
8.3871212 -5.576611 -0.68309861 31
3.744005 -5.8996077 -0.19273321 19
14.051226 11.350062 -1.9718062 7
16.269194 4.2985063 -1.905349 17
17.808496 -2.9769249 -1.7990056 22
8.445857 -5.6604147 -0.6806547 29
3.7118118 -5.8965387 -0.18488546 17
13.961497 11.189269 -1.9689722 7
16.087805 4.1845632 -1.8880872 24
17.778156 -3.0388761 -1.7938747 22
8.4065619 -5.6745682 -0.67544442 32
3.6796861 -5.8933053 -0.17707938 19
13.876341 11.03774 -1.9700391 7
16.025076 4.1055975 -1.8877206 32
17.726839 -3.1002054 -1.7930567 24
8.5396032 -5.8165898 -0.68446285 29
3.652878 -5.8983827 -0.17077021 19
13.681344 10.800998 -1.9521227 7
16.169491 4.0764995 -1.9146687 31
17.82342 -3.1844637 -1.8008028 20
8.6091108 -5.910243 -0.68444371 20
3.6162038 -5.891871 -0.1617092 20
13.588651 10.643378 -1.9452531 7
16.140285 4.0062771 -1.9153405 26
17.777674 -3.2435734 -1.7941848 18
8.4975138 -5.87957 -0.67003554 21
3.576937 -5.869173 -0.1547758 18
13.324203 10.357677 -1.9168655 22
16.02494 3.9123862 -1.9027734 17
17.695765 -3.3052793 -1.784127 18
8.435359 -5.8823991 -0.65962088 21
3.5689352 -5.9092937 -0.14822204 20
13.270285 10.237955 -1.9185141 25
15.912316 3.8231466 -1.8993021 18
17.875029 -3.4001451 -1.8065346 6
8.426178 -5.9220166 -0.656986 18
3.5267684 -5.8881354 -0.14137389 18
13.312225 10.196385 -1.9372122 28
15.926233 3.761867 -1.9050146 17
8.9335175 -1.7348818 -0.90192598 28
8.3050385 -5.878119 -0.64192516 22
3.4868615 -5.8655457 -0.13340446 20
13.233319 10.051918 -1.9315999 25
15.798657 3.6706498 -1.8967408 17
8.2350492 -5.8740034 -0.63108563 21
3.4608192 -5.8753047 -0.12616614 20
13.010694 9.8078213 -1.9111395 22
15.772611 3.6008229 -1.9033898 17
11.071054 -2.2363379 -1.1193942 26
8.2186518 -5.9144049 -0.62817383 19
3.4630439 -5.9262891 -0.12100875 18
12.939882 9.6837921 -1.9129211 7
15.707856 3.5255172 -1.8968521 17
8.6067019 -1.771399 -0.86932552 18
8.0861969 -5.8598847 -0.61253357 21
3.411284 -5.8871412 -0.112826 20
12.905808 9.5777111 -1.9135631 7
15.6188 3.4425902 -1.8901483 17
8.3905849 -1.7605277 -0.8466621 30
8.0751247 -5.9014454 -0.60472393 21
3.3897407 -5.899704 -0.10570074 19
12.780293 9.4190025 -1.9043635 7
15.611524 3.3781831 -1.8961645 17
11.109023 -2.3734574 -1.1218396 21
7.9268799 -5.8335295 -0.59506768 21
3.3681388 -5.9121661 -0.099762931 19
12.674767 9.2663393 -1.8972237 7
15.467102 3.2876339 -1.888343 17
11.128808 -2.4224033 -1.1267757 21
7.8476191 -5.8239069 -0.58402067 25
3.3130958 -5.8630376 -0.091684543 21
12.578205 9.1251917 -1.8970163 7
15.449482 3.2219372 -1.8930492 17
8.7004433 -1.9272486 -0.88318723 14
7.8584423 -5.8767266 -0.58126897 21
3.3062844 -5.9013791 -0.086189881 19
12.418722 8.9369097 -1.8786159 17
15.299727 3.1322353 -1.8815756 19
8.6256657 -1.9438776 -0.87319714 30
7.8451452 -5.9117403 -0.57500255 19
3.2701149 -5.887321 -0.077579908 20
12.388945 8.8467388 -1.8880758 15
15.300616 3.0712526 -1.8912748 16
8.5888901 -1.9702741 -0.87178677 32
7.7310462 -5.872438 -0.56658804 21
3.2296159 -5.8697948 -0.071330257 19
12.237501 8.6710482 -1.8760895 17
15.159832 2.9852331 -1.880717 18
8.5523891 -1.9949243 -0.87036598 32
7.6898074 -5.8856845 -0.56175131 22
3.2163203 -5.8942518 -0.065630317 19
12.013136 8.4429731 -1.8549318 7
15.032108 2.9056127 -1.8771623 18
8.5976219 -2.0403154 -0.87887496 27
7.6684165 -5.9140086 -0.55668086 20
3.1852007 -5.8884487 -0.060761057 19
11.920006 8.3806286 -1.8640357 17
14.828812 2.8663168 -1.8812144 18
8.6009569 -2.0411067 -0.89479953 29
7.6013889 -5.8601999 -0.57023078 22
3.1875474 -5.892787 -0.067822337 20
11.914286 8.442029 -1.8601972 17
14.76383 2.9126072 -1.8770429 18
8.5882397 -2.0048673 -0.90048188 29
7.650084 -5.8531632 -0.58239383 22
3.2100954 -5.8804035 -0.078346044 20
11.894682 8.4969292 -1.8544394 7
14.733598 2.9627872 -1.8745673 17
8.5706778 -1.9676708 -0.90408182 31
7.7860923 -5.9121079 -0.60479575 19
3.253283 -5.9079256 -0.087112188 18
11.9591 8.6124887 -1.8643973 19
14.68291 3.0112979 -1.8722323 19
8.5971127 -1.9390197 -0.91074181 30
7.7953281 -5.8742003 -0.61238766 22
3.2762501 -5.9007926 -0.096600674 20
11.932258 8.65975 -1.8573054 7
14.637778 3.057991 -1.8678942 17
8.7008028 -1.9289215 -0.92568761 21
7.8202834 -5.8481908 -0.62292713 20
3.2929099 -5.8799133 -0.1046911 20
12.024086 8.7970781 -1.8662777 17
14.626696 3.109 -1.870504 19
7.9454026 -5.8964748 -0.63983786 19
3.3266671 -5.8894534 -0.11334335 19
12.012515 8.85639 -1.8615711 7
14.672367 3.1830018 -1.8727108 18
11.096635 -2.3728356 -1.1926697 24
7.7937598 -5.739759 -0.63441032 28
3.3506238 -5.8814216 -0.12287839 19
12.134516 9.0184603 -1.877791 7
14.650274 3.2344768 -1.8767101 17
8.5693588 -1.7995998 -0.92495793 20
7.9108744 -5.7814078 -0.65251982 23
3.378525 -5.8825603 -0.13143863 18
12.173658 9.1170053 -1.8809209 7
14.638065 3.2907777 -1.8740916 17
8.3955479 -1.7294675 -0.91001219 28
8.1051064 -5.8779039 -0.67729121 18
3.425035 -5.9132519 -0.14075609 20
12.234664 9.2362309 -1.8849475 7
14.674911 3.3556125 -1.8750343 17
11.033085 -2.2306724 -1.1989801 29
8.1383562 -5.8566217 -0.68530369 20
3.4410868 -5.8863554 -0.1487775 20
12.221524 9.2968292 -1.8772786 7
14.695745 3.419807 -1.8793604 17
11.104348 -2.2007341 -1.2117921 25
8.1957121 -5.8524213 -0.69891858 21
3.4995852 -5.938746 -0.15883535 19
12.310265 9.4357615 -1.8879669 8
14.693694 3.4734421 -1.8779612 17
8.3387976 -5.9085689 -0.71643877 18
3.5084589 -5.904222 -0.16665037 19
12.400941 9.5810785 -1.8936248 7
14.660336 3.527755 -1.8754927 17
8.9169655 -1.6993892 -0.97811288 28
8.3281622 -5.8531303 -0.7243017 20
3.5351062 -5.8997197 -0.17529584 18
12.507802 9.7370577 -1.9041525 7
14.687131 3.5884845 -1.8751522 18
16.316952 -3.0447927 -1.7914616 16
8.4023209 -5.8593602 -0.73606658 20
3.5695167 -5.9079256 -0.184366 19
12.533598 9.8346624 -1.905353 8
14.731988 3.6567152 -1.8798881 17
16.053246 -2.9347386 -1.769961 20
3.6004131 -5.9123368 -0.19214916 19
12.677273 10.015499 -1.9207931 25
14.775575 3.7278211 -1.8872625 16
16.078163 -2.8755391 -1.780131 19
7.3299894 -5.0321136 -0.65291852 13
3.6036277 -5.8690825 -0.19959235 19
12.69062 10.112669 -1.9177289 26
14.728142 3.7760644 -1.8776535 16
15.970781 -2.7959654 -1.7699591 20
7.2447896 -4.9346523 -0.65294355 36
3.6433978 -5.8853693 -0.20906302 20
12.747143 10.227006 -1.919817 27
14.791039 3.8500206 -1.8874584 16
15.916799 -2.7235675 -1.7713606 19
7.5309677 -5.0892692 -0.68343103 35
3.691287 -5.9141822 -0.21787328 19
12.733787 10.29323 -1.9118863 26
14.819963 3.91837 -1.887623 16
15.828332 -2.6487541 -1.7632577 20
8.008832 -5.3695459 -0.73177606 33
3.6898429 -5.861639 -0.2261388 17
12.714712 10.358785 -1.9004748 23
14.767791 3.962543 -1.8773972 18
15.866899 -2.5926175 -1.7749524 22
8.0528288 -5.3563662 -0.74248654 32
3.7352717 -5.8858461 -0.23490742 20
12.900106 10.588728 -1.9251184 20
14.886537 4.0557446 -1.8944589 25
15.674779 -2.5022757 -1.7552272 18
8.3091373 -5.4830294 -0.77125204 29
3.7680697 -5.8942323 -0.24429646 19
13.057475 10.798244 -1.9425104 7
14.896127 4.1170659 -1.8921109 30
15.32089 -2.3854914 -1.7145613 22
8.4536142 -5.5339971 -0.79341948 31
3.791559 -5.87884 -0.25162226 19
13.120251 10.935261 -1.9429823 8
14.770933 4.1435781 -1.872781 34
15.451468 -2.3478496 -1.7364833 22
8.4576111 -5.4903383 -0.79889345 32
3.2055891 -4.9305205 -0.21770108 26
13.225964 11.10577 -1.9493874 7
14.71662 4.1921396 -1.8625926 29
15.396958 -2.2736249 -1.732022 23
8.3725624 -5.3916125 -0.79423517 30
3.3047721 -5.0444541 -0.23061788 12
13.330359 11.276997 -1.958509 7
14.734418 4.2584434 -1.8614681 21
15.355703 -2.2100549 -1.7291996 24
8.1481924 -5.2049775 -0.77792954 35
3.6278467 -5.4894009 -0.25967428 26
13.325812 11.361221 -1.9518574 8
14.824263 4.3405352 -1.8747212 18
15.35296 -2.1522529 -1.7362095 24
7.8171301 -4.953249 -0.7543385 33
3.3496671 -5.0321217 -0.24490745 32
13.484918 11.582489 -1.9688034 7
14.994469 4.4501052 -1.8927559 17
15.340686 -2.0959573 -1.7339836 23
7.948812 -4.9959521 -0.77022213 33
3.2399063 -4.8287673 -0.24168649 28
13.650378 11.811824 -1.9833237 17
14.973149 4.5064063 -1.8866972 16
15.348321 -2.0369983 -1.7366859 23
7.7940888 -4.8570576 -0.75987202 34
3.2434468 -4.795958 -0.24671148 29
13.617461 11.875084 -1.9691952 8
14.95716 4.5614471 -1.8812387 6
15.384346 -1.9844273 -1.7481521 22
7.8324628 -4.8412051 -0.76996917 38
3.2306845 -4.7377825 -0.252377 31
13.813621 12.135562 -1.9942387 7
14.98696 4.6335073 -1.8872108 6
15.3127 -1.912726 -1.7445798 24
8.3466711 -5.1168509 -0.82555228 31
1.6635333 -2.4204559 -0.13285457 23
13.815281 12.227026 -1.9813899 8
15.061149 4.7169909 -1.8875403 17
15.300504 -1.8515643 -1.7396432 23
8.347847 -5.0755706 -0.83069247 30
1.6552488 -2.3895917 -0.13454308 27
13.925355 12.420122 -1.9875319 21
15.071631 4.7838984 -1.888343 16
15.311215 -1.7959453 -1.7482761 24
8.3572378 -5.0394192 -0.83836204 32
1.6553377 -2.3711064 -0.13687788 31
14.021572 12.598517 -1.9912071 20
15.163337 4.8742542 -1.8964196 16
15.337745 -1.7393806 -1.7505298 25
8.4307251 -5.0416889 -0.85078353 30
1.6667932 -2.3689692 -0.14065322 27
14.079815 12.744425 -1.989342 21
15.135696 4.9295707 -1.8896809 15
15.309145 -1.6793281 -1.7492739 25
8.398221 -4.9785714 -0.85071838 32
3.3074574 -4.6643815 -0.2826589 21
13.975754 12.734803 -1.9705869 22
15.254589 5.0302091 -1.9039707 15
15.329692 -1.6220366 -1.7563478 23
8.3942986 -4.9347577 -0.85704595 31
3.3031971 -4.6240797 -0.28787383 30
13.861291 12.737184 -1.9453486 22
15.221663 5.0842366 -1.8966033 17
15.36921 -1.5692781 -1.7683992 24
8.4462318 -4.9237213 -0.86737859 30
3.3390369 -4.6348019 -0.29637071 30
13.801154 12.775536 -1.9268817 21
15.231778 5.1497474 -1.8945119 17
15.261416 -1.4990841 -1.755321 23
8.4379578 -4.8775492 -0.86983067 31
3.3806233 -4.6598668 -0.30372635 28
13.693615 12.769503 -1.9018794 20
15.264506 5.2262087 -1.8924999 18
15.346188 -1.4479395 -1.764419 24
8.4344902 -4.8324327 -0.87439489 34
3.3696003 -4.6056609 -0.3080644 29
13.63765 12.802127 -1.8868002 18
15.2928 5.2985954 -1.8926755 17
15.316455 -1.3885161 -1.7631228 20
8.5080338 -4.8332353 -0.88534176 32
3.4188535 -4.6372199 -0.31706253 36
13.607656 12.87262 -1.8729634 19
15.385435 5.3969483 -1.9009223 17
15.381061 -1.334849 -1.7699566 6
8.503458 -4.7894969 -0.88990271 34
3.6083014 -4.856811 -0.33933431 44
13.53568 12.907884 -1.8503933 20
15.39925 5.4652624 -1.8964199 18
15.663073 -1.3015009 -1.8018477 16
8.5115795 -4.7530622 -0.8975023 33
3.6258993 -4.8433142 -0.34461424 15
13.626316 13.080869 -1.8587168 8
15.462914 5.5548 -1.9010603 18
15.60264 -1.2361748 -1.8026398 6
8.5598478 -4.7369924 -0.90583354 32
3.8207293 -5.0647593 -0.36914128 13
13.679604 13.228707 -1.8558211 24
15.546091 5.6490979 -1.905043 16
15.517911 -1.1722451 -1.7923423 6
8.5592756 -4.6957793 -0.90910143 32
3.9477682 -5.19346 -0.38642856 12
13.708278 13.358676 -1.8497952 23
15.552884 5.719265 -1.9026914 18
16.126741 -1.1559792 -1.8621366 16
8.5758696 -4.664072 -0.91591692 32
3.6114905 -4.7150998 -0.35701939 14
13.841515 13.587779 -1.8573986 21
15.688436 5.8282437 -1.9127501 6
16.814083 -1.1433208 -1.9469674 17
8.6710672 -4.674747 -0.93292099 30
3.6215615 -4.6942134 -0.36366311 9
13.952038 13.797055 -1.8617241 8
15.724953 5.9168863 -1.9142663 16
17.001406 -1.0904927 -1.9711721 17
8.6358385 -4.6130452 -0.93239063 33
1.7557242 -2.2569518 -0.17839766 27
13.958949 13.905453 -1.8520871 24
15.861973 6.034904 -1.9246249 15
17.02512 -1.0293711 -1.9734708 6
8.6786461 -4.5951066 -0.94037664 34
1.7446405 -2.2274232 -0.17899877 28
14.099018 14.148318 -1.8564399 9
15.876715 6.1104016 -1.920225 6
17.078533 -0.96679908 -1.9792176 13
8.7917986 -4.6138401 -0.95779425 30
1.6544905 -2.0949481 -0.1716921 20
14.195268 14.349711 -1.8582608 24
15.995295 6.2170162 -1.9370496 15
16.957279 -0.89759684 -1.970778 6
8.8310814 -4.5912943 -0.96540642 34
1.668239 -2.0965128 -0.17560738 23
14.270256 14.536736 -1.8574448 22
15.939406 6.2690601 -1.9181775 7
17.094542 -0.83905327 -1.9863414 17
8.820857 -4.5449882 -0.96770591 32
1.6601926 -2.0707772 -0.17675179 23
14.235385 14.607928 -1.8419158 9
15.929381 6.3358507 -1.9168551 7
16.988346 -0.77143621 -1.9736601 18
8.8854485 -4.5371337 -0.98175114 30
1.7303275 -2.1421223 -0.18676101 22
14.518734 15.008356 -1.8673135 9
16.098591 6.4650655 -1.9275242 6
16.996147 -0.70640647 -1.9742366 18
8.9292927 -4.5163803 -0.98643553 32
1.763274 -2.1666157 -0.1914179 34
14.685534 15.292546 -1.8773137 26
16.159149 6.5681219 -1.9349704 7
17.007858 -0.64445776 -1.9813309 18
8.9866171 -4.5001626 -0.99962121 31
1.7654797 -2.1516259 -0.1941348 38
14.802577 15.527948 -1.8768989 25
16.283638 6.6883688 -1.9372498 6
17.010897 -0.57917112 -1.9753895 16
9.0634041 -4.5010848 -1.011848 30
1.7605337 -2.1296327 -0.19515449 39
14.873368 15.717152 -1.8741398 26
16.349951 6.789093 -1.9450988 7
16.942717 -0.514687 -1.9732367 18
9.142643 -4.4967561 -1.0241475 30
1.7865741 -2.1465974 -0.20068029 34
14.854295 15.812686 -1.8599534 26
16.417561 6.8878241 -1.9466983 7
16.994215 -0.45094538 -1.9790181 17
9.1496344 -4.458622 -1.0284767 31
1.7886299 -2.1316059 -0.20287761 34
14.777173 15.846578 -1.8347018 29
16.579237 7.0306396 -1.9626945 18
16.85673 -0.38547632 -1.9628299 18
9.3506708 -4.5102286 -1.0545224 28
1.802754 -2.1325161 -0.20604169 34
14.740599 15.923973 -1.8145107 26
16.547634 7.0820718 -1.9521867 18
16.972292 -0.32292137 -1.9761274 16
9.8639946 -4.7154546 -1.1163334 182
1.8169065 -2.1333485 -0.209223 31
14.61159 15.895552 -1.7902714 26
16.577257 7.1667504 -1.9492003 7
16.903198 -0.25668404 -1.9739344 16
11.228869 -5.3174562 -1.279542 33
1.8375317 -2.1416144 -0.21415989 29
14.544202 15.939103 -1.7702026 28
16.691776 7.2924576 -1.9562954 7
16.939133 -0.19513342 -1.975037 17
11.648414 -5.4639544 -1.331867 29
1.8778473 -2.1724389 -0.22044961 20
14.443427 15.945652 -1.7423589 29
16.788679 7.4081903 -1.9611034 6
16.860296 -0.12948033 -1.9657727 17
4.3752685 -2.0318601 -0.50106972 14
4.8123221 -5.5261955 -0.57027978 10
14.532523 16.162678 -1.7411506 29
16.929066 7.5479293 -1.9710573 7
16.920254 -0.067922615 -1.9727209 17
4.3282313 -1.9907639 -0.49736547 19
4.4870558 -5.1147051 -0.5354833 34
14.48083 16.2244 -1.7229718 29
17.04731 7.6756744 -1.9781874 6
16.855825 -0.0029418964 -1.9651936 17
4.3084517 -1.9616584 -0.4967292 18
5.1172981 -5.7942338 -0.61654592 23
14.521626 16.390638 -1.7118883 31
17.185688 7.8066258 -1.9872445 15
16.89085 0.053064346 -1.9662987 16
4.3192272 -1.9492985 -0.49973226 21
5.2143354 -5.8606739 -0.63253468 20
14.544738 16.538454 -1.7024114 30
17.244158 7.9204898 -1.9877793 6
16.919592 0.1240293 -1.9756739 17
4.3086176 -1.9237291 -0.50010544 23
4.0361724 -4.4999676 -0.49379203 18
14.858139 17.008221 -1.7258612 28
17.318007 8.0240602 -1.9892457 7
16.958813 0.18055896 -1.9803129 17
4.3422675 -1.9206022 -0.50658226 22
4.0556884 -4.4885197 -0.4994784 16
14.800144 17.067686 -1.7025857 28
17.436659 8.1605072 -1.9962697 6
16.873922 0.24445666 -1.9675097 18
4.3399258 -1.9005789 -0.50800216 20
4.1071367 -4.5152669 -0.50933087 38
14.670524 17.04402 -1.6672214 30
17.551476 8.2927971 -2.0026083 15
16.932497 0.3073827 -1.9744579 17
4.3699183 -1.8937496 -0.51149863 19
4.3362408 -4.7305183 -0.54112542 35
14.582982 17.068445 -1.6446737 30
17.625162 8.4067707 -2.0041852 7
16.847 0.37642819 -1.9616736 18
4.4046526 -1.8878365 -0.51721144 18
4.3919344 -4.7528315 -0.55365342 35
14.469457 17.061796 -1.6232108 29
17.772949 8.5611849 -2.0142758 7
16.899431 0.43957567 -1.9739344 16
4.3241405 -4.6451931 -0.54853648 35
14.4047 17.11219 -1.5994263 29
17.769552 8.6399317 -2.0035295 7
16.85346 0.49725497 -1.9657727 18
4.2692556 -4.5526605 -0.54494143 34
14.278989 17.089598 -1.5689738 31
17.993265 8.8303919 -2.0217867 7
16.910891 0.56690156 -1.9727209 16
4.4496202 -4.710279 -0.57373387 17
14.274614 17.212185 -1.5518832 29
18.151854 8.9948683 -2.0327575 7
16.948856 0.62741065 -1.9743928 16
12.501966 -5.1427307 -1.4876678 192
4.2811184 -4.4987602 -0.55533981 23
14.168073 17.211712 -1.5236925 29
18.391153 9.1975622 -2.0524426 15
16.906384 0.69676405 -1.9697677 17
12.616914 -5.1360278 -1.5039088 33
1.9649713 -2.0483372 -0.25632128 29
13.985448 17.105143 -1.4907739 29
18.407455 9.2902107 -2.0435107 6
16.899361 0.75261819 -1.9662369 17
12.948374 -5.2157164 -1.5485276 30
1.9577613 -2.0273211 -0.25698209 32
13.914503 17.158472 -1.4673041 31
18.37323 9.3616276 -2.0255165 8
16.985693 0.82776737 -1.9736601 16
13.265103 -5.2788253 -1.5887929 27
1.9726726 -2.0264196 -0.26035818 32
13.855605 17.214432 -1.4444956 31
18.701996 9.6156464 -2.0619266 7
16.992775 0.88460582 -1.974813 16
13.115333 -5.1689115 -1.5762661 28
1.9834125 -2.0225673 -0.26328874 31
13.849412 17.336443 -1.4271303 31
18.849333 9.7789154 -2.0634007 7
16.979679 0.94931149 -1.970692 16
13.204016 -5.1453757 -1.5895468 26
2.0119963 -2.0360179 -0.26856312 25
13.817428 17.414515 -1.4102987 31
19.088017 9.991704 -2.0783417 9
16.921892 1.0083095 -1.9614025 17
13.157361 -5.0717273 -1.5866663 28
13.735888 17.442669 -1.3851503 30
19.274904 10.184011 -2.0914125 24
16.947979 1.0751858 -1.9618865 17
13.203816 -5.0314879 -1.5974195 28
13.617495 17.435869 -1.357002 33
19.339113 10.308781 -2.0947449 21
16.972576 1.1451706 -1.9712677 18
13.264706 -4.993803 -1.61237 26
4.5237021 -4.4781394 -0.61515552 15
13.465636 17.359793 -1.3245063 34
19.408018 10.437037 -2.0869336 20
17.018625 1.2139392 -1.9680899 28
13.184291 -4.9110532 -1.600502 27
4.4793601 -4.4018545 -0.61245984 13
13.454517 17.477356 -1.3065246 30
19.354923 10.495748 -2.0735197 8
16.845755 1.2577688 -1.9515578 57
13.066231 -4.8126154 -1.5914036 27
4.3704138 -4.2634192 -0.6008023 30
13.503341 17.687212 -1.2908698 31
16.766403 1.3224889 -1.9400153 42
13.1231 -4.7712307 -1.6008198 26
4.709703 -4.556057 -0.65058959 16
13.523706 17.836208 -1.2788657 30
19.764383 10.915026 -2.0945029 8
16.751881 1.3831425 -1.9359356 22
13.095732 -4.7121716 -1.6054113 27
4.5213394 -4.3418717 -0.62899667 30
13.435025 17.854803 -1.2531852 29
19.057222 10.61147 -2.0119569 6
16.955141 1.4595305 -1.956993 17
12.996201 -4.6200724 -1.5959022 31
4.6432972 -4.4294853 -0.64957309 15
13.149353 17.609119 -1.2056178 7
19.033661 10.69867 -1.9909301 3
16.974901 1.5299021 -1.9509252 18
13.248703 -4.6500163 -1.6270871 25
5.2749128 -4.9917259 -0.740246 13
13.248714 17.878492 -1.2051463 27
18.934278 10.734322 -1.9769763 5
16.953728 1.5936432 -1.9521915 17
13.006515 -4.511538 -1.6050432 31
5.1331019 -4.8219895 -0.72531283 31
11.891189 16.170137 -1.0659657 20
18.632002 10.65338 -1.9381487 7
17.042048 1.6649815 -1.9600232 17
13.281609 -4.5499005 -1.6417899 25
5.1948619 -4.8425922 -0.73641777 34
11.638066 15.942232 -1.0275302 28
18.641455 10.749638 -1.9280728 7
16.986446 1.7254202 -1.9513572 18
13.319597 -4.5136175 -1.649603 25
5.2084522 -4.8197036 -0.74209499 33
11.507048 15.884686 -0.9970687 28
18.386244 10.696754 -1.8872002 6
17.084095 1.7986253 -1.9602816 17
13.328967 -4.4546371 -1.648438 26
5.3684196 -4.9313293 -0.76873821 12
11.420206 15.887046 -0.9740417 28
18.278759 10.715508 -1.864897 7
17.102097 1.8669431 -1.9601136 17
13.210558 -4.3664165 -1.6418422 25
5.5659819 -5.0753188 -0.80100644 12
11.31872 15.856549 -0.94941449 28
18.038673 10.663792 -1.8333211 4
17.081341 1.922017 -1.9554155 16
13.236668 -4.3187399 -1.6430141 25
5.4891644 -4.9668055 -0.79242796 13
11.229435 15.854031 -0.92300212 28
17.902151 10.671824 -1.8087484 7
17.0495 1.9847574 -1.9495939 17
13.143901 -4.2327008 -1.6343575 25
5.8470607 -5.2517967 -0.84824824 33
11.117455 15.83028 -0.89871186 27
17.719358 10.651074 -1.7724011 1
17.126261 2.0634072 -1.9501548 17
13.243952 -4.2114077 -1.6497871 26
5.526103 -4.9235783 -0.80534697 14
11.057034 15.867585 -0.87822735 29
17.236542 2.1438696 -1.9636352 16
13.444226 -4.2183194 -1.677693 23
5.3649807 -4.7448645 -0.7843858 31
10.982205 15.878076 -0.85642296 30
17.184553 2.2013919 -1.9555564 6
13.430582 -4.1600285 -1.6790541 25
5.3750691 -4.7171292 -0.79078645 28
10.952618 15.94808 -0.83793616 28
17.220646 2.2732565 -1.9575721 17
13.293963 -4.0618358 -1.6649342 19
5.4257331 -4.7265015 -0.79950011 34
10.866448 15.947548 -0.81556445 28
17.272434 2.3383942 -1.9612492 6
13.393758 -4.038713 -1.6805205 15
5.506279 -4.7612839 -0.81650984 31
10.850513 16.062346 -0.79208934 26
17.346825 2.4225018 -1.9646398 16
13.262474 -3.9385974 -1.6668631 18
5.5769863 -4.7851229 -0.82816052 29
10.758648 16.052885 -0.76940334 28
17.264387 2.4755342 -1.9532356 17
13.272057 -3.8885653 -1.6662649 18
5.6166282 -4.7835069 -0.83795857 30
10.725075 16.130318 -0.75090927 26
17.264923 2.5433044 -1.9513029 17
13.314383 -3.8455164 -1.6795291 16
5.6600046 -4.7847681 -0.84967029 33
8.7748995 13.287638 -0.60337228 17
17.275814 2.609637 -1.9474266 16
13.279047 -3.787648 -1.6759236 18
6.0736566 -5.0945964 -0.91443133 33
10.665225 16.27956 -0.71023947 19
17.418232 2.6995978 -1.9615203 17
13.226596 -3.7178283 -1.6674899 17
6.1031232 -5.0813217 -0.9230808 30
10.663069 16.407145 -0.69357789 26
16.413399 10.712009 -1.539085 3
17.359816 2.7557366 -1.9498549 18
13.306535 -3.6877275 -1.6807436 15
5.9795666 -4.9414563 -0.90713692 29
8.6483088 13.414405 -0.54898804 14
16.362429 10.764465 -1.5242376 10
17.37446 2.823385 -1.9495391 17
8.4365177 -2.3032229 -1.0660375 12
5.9519253 -4.8802743 -0.90554154 29
8.5482836 13.366579 -0.52633846 27
16.091301 10.670805 -1.4856639 9
17.477589 2.9090683 -1.9498293 17
8.3918238 -2.258004 -1.062416 27
6.0056462 -4.8841376 -0.91620392 27
8.4724083 13.35038 -0.50795704 25
16.001547 10.699972 -1.4642632 8
17.442644 2.9689941 -1.9440066 18
8.4912214 -2.2498202 -1.0770105 16
5.9687967 -4.8179317 -0.91467059 29
10.702736 17.002235 -0.62083703 15
15.967202 10.761905 -1.4511998 9
17.514357 3.0504448 -1.9532899 18
13.239233 -3.4534969 -1.6799688 16
6.153245 -4.927916 -0.94700736 11
10.773033 17.253855 -0.6072582 19
17.631292 3.1374366 -1.958111 17
13.164717 -3.3825741 -1.6737454 17
6.2018332 -4.9296269 -0.95730925 30
8.3943644 13.554564 -0.45926353 16
17.64913 3.2105725 -1.9551103 18
9.0929823 -2.2991898 -1.1549393 17
6.1688051 -4.8665867 -0.95362586 29
10.660041 17.354784 -0.56179386 16
15.674291 10.817007 -1.3885118 31
17.691673 3.2853458 -1.9547883 18
9.0481825 -2.2526109 -1.1498448 20
6.2103705 -4.8608069 -0.96274632 28
10.542521 17.298565 -0.53401154 17
15.631632 10.872361 -1.3682095 31
17.747635 3.3662846 -1.9591955 17
13.095357 -3.2068357 -1.6673611 19
6.098278 -4.7371321 -0.94814342 31
10.476746 17.333281 -0.51267064 19
15.600623 10.935852 -1.3556259 25
17.794415 3.442771 -1.9593385 18
13.241809 -3.1913011 -1.6869214 18
6.0962448 -4.6981311 -0.95047009 30
10.375764 17.295507 -0.48939902 18
15.520222 10.956427 -1.3384595 20
17.77747 3.507138 -1.9524761 7
8.6281691 -2.0443833 -1.0997365 25
6.0931883 -4.6602793 -0.95276171 29
10.278493 17.290325 -0.45997983 19
15.480934 11.022073 -1.325544 12
17.979319 3.6187356 -1.9664427 17
8.5682974 -1.9954818 -1.0911207 29
6.3127794 -4.7881875 -0.99110645 30
10.200579 17.296429 -0.43464726 19
18.029919 3.6977315 -1.9669479 18
8.6043873 -1.9706678 -1.0963538 27
6.4296646 -4.8380661 -1.0122395 26
10.125714 17.300344 -0.41289824 17
18.103859 3.7853906 -1.9700557 17
8.5969963 -1.9342637 -1.0975811 32
6.4787254 -4.837894 -1.0214658 28
10.049936 17.316147 -0.38792312 18
18.227373 3.8809981 -1.9718741 6
8.5896807 -1.8995682 -1.0941917 33
6.4010229 -4.7416964 -1.0119873 31
9.976656 17.33593 -0.36309928 18
18.272013 3.9605644 -1.9716613 7
8.6306639 -1.8739009 -1.1000531 20
6.349854 -4.6678448 -1.0067773 31
9.8939886 17.331947 -0.33790052 18
18.330177 4.0469232 -1.9729748 7
13.164296 -2.8077648 -1.6813526 23
6.3631544 -4.6400914 -1.011642 14
9.8133821 17.338032 -0.30949113 18
18.471491 4.1491823 -1.9797868 25
11.159884 -2.3354871 -1.4221709 26
6.5847254 -4.7647948 -1.0469689 30
9.7254562 17.330559 -0.28790382 17
18.577293 4.2479439 -1.986136 31
11.134506 -2.2855856 -1.4198227 21
6.465415 -4.6407404 -1.0308065 33
9.6456137 17.329746 -0.26309368 18
18.47575 4.296042 -1.9635644 29
8.4191189 -1.6960629 -1.0727687 40
6.474009 -4.6110501 -1.0322967 28
9.5604811 17.325926 -0.23141316 17
18.553841 4.385942 -1.9533821 21
6.4267263 -4.5402794 -1.0233665 30
9.5508957 17.308556 -0.21737812 17
6.4475579 -4.554996 -1.0210797 31
9.6360359 17.312538 -0.23862174 18
18.922066 4.3963404 -1.962953 20
8.3730106 -1.6867743 -1.0457042 29
6.496182 -4.6251335 -1.0243831 31
9.6992979 17.276878 -0.25937033 19
19.024675 4.3467498 -1.9788133 24
11.132849 -2.2872705 -1.3894532 20
6.4832721 -4.6535583 -1.0166636 31
9.8068056 17.319361 -0.27444342 17
19.071022 4.2803559 -1.9750173 30
11.110998 -2.3252563 -1.3777273 20
6.7404914 -4.8757172 -1.0494672 29
9.8750286 17.291723 -0.29543412 18
19.309362 4.2595725 -2.0050428 30
13.578012 -2.8960047 -1.6825368 21
6.686234 -4.8756852 -1.0380582 10
9.9651289 17.30891 -0.31375366 17
19.28182 4.1759224 -2.0005031 28
8.6444302 -1.8768897 -1.0673316 21
6.4531417 -4.7420382 -0.99746388 32
10.048384 17.306511 -0.33883163 18
19.219889 4.0818076 -1.9992912 21
8.6227999 -1.9068925 -1.0639933 31
6.5821218 -4.8776288 -1.014611 27
10.126719 17.295137 -0.36032736 18
19.205145 4.0086656 -1.99283 7
8.5676842 -1.9276687 -1.0549471 32
6.5641918 -4.9034991 -1.0060314 27
10.212752 17.29637 -0.37866515 17
19.12644 3.919137 -1.990045 18
8.6188269 -1.9739749 -1.0574738 27
6.4596353 -4.8623834 -0.98557049 12
10.306094 17.316107 -0.40099257 17
19.240232 3.8585479 -2.0001853 6
8.5823545 -2.0003345 -1.0523733 27
6.2201586 -4.719646 -0.94487619 11
10.379483 17.294867 -0.4295541 20
19.213192 3.7868934 -2.002965 7
8.5946455 -2.0364404 -1.0516616 25
6.0889754 -4.6553726 -0.92210555 29
10.455545 17.277765 -0.44771007 17
19.056999 3.6801488 -1.9817712 7
14.051502 -3.3864388 -1.7132794 13
6.1079035 -4.7054176 -0.92075253 29
10.560207 17.307188 -0.47071487 19
15.652167 10.870439 -1.2857883 8
19.15276 3.6258762 -1.9972097 7
13.938294 -3.4132574 -1.6959108 6
6.1177492 -4.750545 -0.9194954 28
10.63121 17.280785 -0.48876882 17
15.646348 10.781606 -1.2887186 6
19.07485 3.5284281 -1.9875269 7
9.034214 -2.2524824 -1.0954132 16
6.1736717 -4.8338208 -0.92248398 27
8.4286308 13.593988 -0.40208152 15
15.635596 10.689891 -1.2978817 3
19.106548 3.4619148 -1.9963436 17
9.0750237 -2.2946489 -1.0996217 20
6.1525183 -4.8537374 -0.91642892 30
10.885717 17.427555 -0.53806716 13
19.122477 3.3993452 -2.0002446 17
14.025444 -3.6037314 -1.6960045 15
6.1907282 -4.9190369 -0.91627979 28
10.947287 17.370544 -0.55917627 13
19.033638 3.3013661 -1.989488 7
13.998583 -3.651576 -1.686685 7
6.2140708 -4.9784093 -0.91705221 11
8.4454966 13.292583 -0.44815144 21
16.175074 10.795592 -1.3700849 5
19.059977 3.2340198 -1.9943987 18
8.5119982 -2.2553253 -1.0235286 13
6.0727072 -4.9018068 -0.89193547 31
8.5613794 13.366488 -0.46278879 28
16.263634 10.768746 -1.3879197 7
19.051939 3.1574445 -1.9990876 7
8.4128876 -2.2620971 -1.0095192 27
5.9773641 -4.8628707 -0.87385631 29
8.5991096 13.317669 -0.48434079 21
16.343863 10.73591 -1.4051204 10
19.013947 3.0795875 -1.9973011 18
14.063084 -3.8393111 -1.6867026 18
6.0062013 -4.9230251 -0.87384057 26
10.675814 16.407948 -0.61517966 26
18.902821 2.987149 -1.9844086 18
14.24632 -3.9454989 -1.699945 15
5.9542193 -4.9170127 -0.86207044 30
10.743565 16.392899 -0.63306922 22
18.839573 2.9064202 -1.9800003 18
14.169184 -3.9827778 -1.6899503 16
6.0619221 -5.045228 -0.8734948 30
8.75842 13.247594 -0.53237933 17
18.854828 2.8346965 -1.9871725 19
14.20283 -4.0484629 -1.6904987 18
6.1999979 -5.1987286 -0.89041293 12
10.776822 16.183628 -0.66878921 25
18.933632 2.775619 -1.9977686 7
14.245012 -4.1196928 -1.6921459 20
5.900404 -4.9844627 -0.84454751 37
10.807821 16.10194 -0.68737882 27
18.84111 2.6881974 -1.9835445 7
14.28339 -4.187582 -1.6879907 22
5.8553967 -4.9850955 -0.83269066 12
10.883156 16.086445 -0.70878065 27
18.884628 2.6238182 -1.9938278 19
14.20558 -4.2240705 -1.6780798 25
5.7151709 -4.9054189 -0.80889398 33
10.890949 15.971521 -0.72574258 28
18.93857 2.5572293 -2.0018437 7
14.204086 -4.2830567 -1.6745888 23
5.4343243 -4.6990647 -0.76650405 32
10.988637 15.994544 -0.74887818 27
18.952398 2.4884007 -2.0057008 17
14.093815 -4.3062224 -1.6582284 25
5.4176679 -4.7194757 -0.75898027 30
11.060954 15.974046 -0.7701894 29
18.838491 2.3999 -1.9926564 6
14.035769 -4.3447962 -1.6480681 26
5.4298978 -4.7669244 -0.75687718 14
11.05892 15.846693 -0.78626704 30
18.871492 2.3338466 -1.9985842 6
14.024273 -4.4003177 -1.6434948 22
5.3792572 -4.7574911 -0.74717569 34
11.162429 15.87075 -0.80983871 30
18.825264 2.2581072 -1.9961442 19
13.838643 -4.3978524 -1.613356 25
5.8711209 -5.230978 -0.80983019 13
11.234471 15.849408 -0.83122581 29
17.933664 10.682127 -1.6611499 1
18.971748 2.2018175 -2.0141361 6
13.798539 -4.4435124 -1.6055353 26
5.4822602 -4.9206781 -0.75217915 14
11.309396 15.831798 -0.85288334 29
18.747791 2.1062152 -1.9861975 20
13.919716 -4.5389104 -1.6163864 24
5.4378891 -4.918684 -0.74350518 31
11.404756 15.842205 -0.87617207 29
18.809774 2.0400736 -1.9952585 17
13.855527 -4.5769124 -1.6058061 25
5.6409388 -5.1400623 -0.76711041 13
11.52975 15.892659 -0.89846325 30
18.836561 1.9731548 -2.0006616 17
13.806195 -4.6168084 -1.5968961 26
5.6794753 -5.2170596 -0.76703614 13
11.63486 15.926162 -0.92323208 31
18.838354 1.9002439 -2.0067456 7
14.024278 -4.7496848 -1.6189878 23
5.3082619 -4.9086251 -0.71272546 14
11.86712 16.113827 -0.95774901 51
18.634233 10.637402 -1.775371 9
18.726076 1.8196105 -1.9973818 18
13.883395 -4.7641797 -1.5997342 25
5.5428681 -5.168808 -0.74044824 13
13.264771 17.87406 -1.0886171 28
18.823782 10.654321 -1.8049023 13
18.772179 1.7513565 -2.0048952 17
13.909471 -4.8274636 -1.5994704 25
5.2848649 -4.9645543 -0.70329857 32
13.153006 17.601191 -1.0938702 21
19.150246 10.742222 -1.8476735 2
18.77882 1.6825725 -2.0016046 7
13.99123 -4.9133701 -1.6004583 24
5.3033161 -5.0186043 -0.70047992 13
13.405971 17.803251 -1.132871 29
19.245247 10.70297 -1.8646544 8
18.705881 1.6036596 -1.9931589 18
13.813527 -4.9106274 -1.577099 25
13.388917 17.645639 -1.1492138 30
19.339916 10.662998 -1.8855572 7
18.741018 1.5374991 -1.9996082 18
13.77724 -4.954679 -1.5698493 28
13.443789 17.583744 -1.1677527 32
18.741478 1.4651128 -2.0023601 17
13.94083 -5.0740471 -1.5854599 24
4.6042738 -4.4556227 -0.59775954 17
13.565207 17.595715 -1.1993759 36
22.820759 12.359735 -2.2477598 7
18.588196 1.3780794 -1.9886668 20
13.776504 -5.0769577 -1.5613016 26
4.4441667 -4.3353662 -0.57376343 27
13.861725 17.844688 -1.2395787 29
22.311895 11.97858 -2.2066593 9
18.518158 1.3079077 -1.9839501 37
13.674449 -5.0963516 -1.5466907 29
4.3931584 -4.3171449 -0.56271255 28
13.956923 17.844778 -1.2665899 29
22.191595 11.809418 -2.2081499 8
18.543016 1.2413781 -1.982832 78
14.122397 -5.3195152 -1.5941212 24
4.4059649 -4.3615875 -0.5609417 29
13.978156 17.724842 -1.2857636 32
21.941242 11.568304 -2.1831656 7
18.736261 1.1755025 -2.0062656 32
13.88333 -5.2932005 -1.5616552 26
14.092025 17.747871 -1.3106586 29
21.690472 11.334685 -2.17559 8
18.695389 1.1107107 -2.0014837 18
13.823513 -5.3257356 -1.5517805 30
4.3850317 -4.4049749 -0.55253077 32
14.112462 17.640455 -1.3302748 33
21.469608 11.119281 -2.1663489 9
18.575426 1.0255195 -1.9914476 19
13.84448 -5.3977365 -1.5486884 25
2.0301964 -2.0551527 -0.25426427 22
14.267122 17.700396 -1.3586385 30
21.230762 10.897081 -2.1424026 8
18.648222 0.96099436 -2.0021574 18
13.764506 -5.4275341 -1.5316215 28
1.9740385 -2.0130084 -0.24468249 30
14.217732 17.507399 -1.3715191 34
21.231161 10.794489 -2.1550074 8
18.775608 0.90185714 -2.0154839 6
13.719203 -5.4623075 -1.5233779 31
1.9702703 -2.023952 -0.24264997 34
14.265242 17.434927 -1.3896608 31
20.828663 10.493952 -2.1307564 9
18.614542 0.82574904 -2.0011449 7
13.994641 -5.631485 -1.5535831 28
1.9733419 -2.0420284 -0.24195138 34
14.245585 17.281275 -1.4051102 30
20.74637 10.357326 -2.1225212 21
18.727207 0.75871003 -2.0096204 18
13.775803 -5.604979 -1.5211749 29
1.9659898 -2.0493991 -0.23947318 30
14.371801 17.304771 -1.4310026 30
20.645964 10.208355 -2.1284921 24
18.541073 0.68311065 -1.9893641 7
13.815464 -5.6802239 -1.5225744 30
4.229907 -4.4418402 -0.51182556 15
14.360517 17.162807 -1.447137 31
20.659885 10.121173 -2.1382377 23
18.672398 0.61616474 -2.0064843 17
13.953032 -5.8052297 -1.5324075 27
4.1337633 -4.3759193 -0.49490857 31
14.374106 17.05167 -1.4656523 31
20.30138 9.8534412 -2.1132729 9
18.649685 0.54699409 -2.0038145 18
4.2952552 -4.5803857 -0.51073307 36
14.477655 17.047323 -1.4894329 30
20.201769 9.7137709 -2.1110241 8
18.651215 0.47862691 -2.007071 17
4.4698715 -1.8964273 -0.48807031 13
4.1047835 -4.4110932 -0.48480248 33
14.555061 17.011703 -1.5184481 31
19.986235 9.5158224 -2.0963616 8
18.573534 0.39878953 -1.9985144 18
4.3661137 -1.8740255 -0.47508106 18
4.0888739 -4.4264174 -0.47954404 37
14.603418 16.942122 -1.5366145 29
19.94795 9.4080639 -2.1003673 7
18.693811 0.33282906 -2.0146127 18
4.3640084 -1.8920932 -0.47308806 19
4.2413454 -4.6253734 -0.4939 49
14.67171 16.907648 -1.5575211 32
19.8444 9.2746868 -2.0976167 16
18.660065 0.26707548 -2.0108631 18
4.3529706 -1.9053861 -0.47093457 21
4.0401511 -4.4385118 -0.46603876 18
14.81063 16.929966 -1.5887125 27
19.482296 9.0103378 -2.0744061 8
18.625839 0.19180527 -2.0103643 18
4.336411 -1.9189169 -0.46746549 22
5.2240124 -5.7815289 -0.59819925 20
14.974543 17.003223 -1.62011 31
19.303638 8.8501244 -2.0559883 7
18.576683 0.12644942 -2.0049992 7
4.321085 -1.9292955 -0.4648326 22
5.2298346 -5.8307924 -0.59305906 20
15.085463 17.003115 -1.645296 30
19.253443 8.7296972 -2.0579026 7
18.592655 0.051920619 -2.0001187 17
4.3041162 -1.9433829 -0.46138242 20
5.2001672 -5.8447495 -0.58411193 21
15.1432 16.942698 -1.6687323 27
19.221634 8.638545 -2.0699959 15
18.571791 -0.012965557 -2.007704 18
4.3340974 -1.9742485 -0.46277821 19
4.5371122 -5.1336861 -0.50673378 32
15.334865 17.043053 -1.7077556 29
18.976795 8.4529829 -2.0479207 7
18.730717 -0.075190321 -2.0249007 17
4.3548064 -2.0011458 -0.46400675 18
4.6796384 -5.3342261 -0.51985127 12
15.332404 16.909285 -1.7162629 33
